x,y,z
-2.552032372003725,-3.476358588970243,7.8708348502174434
-2.285036413866859,-3.4476868924506947,7.587500517683736
-1.9548866451224143,-3.735723909996195,8.651856186425814
-0.7125810116766715,-2.8639790856068768,9.437635080850034
0.0025731562009639855,-0.46746844814689975,1.077433255584841
1.0232032537797198,0.053694422368821444,4.623778840452185
-2.5656222277610787,-3.6264822386367905,7.811310818305707
-0.5688397478342141,-1.448931330209119,3.2095668675176765
-1.6567138828348904,-3.698119082758207,9.109238588463645
-0.7239208136852772,-1.9793061296884016,4.588064618744203
0.024263507755926787,0.0011339068248604068,2.7342484912494736
1.5158100002477197,-1.4264368327820043,12.658042682995147
0.6070056518413901,-0.33650479897789737,2.0608571100249717
1.0411002320974516,-0.017825898824293803,4.143781914909636
0.6032594595129043,-1.3003667409242357,2.644810679704855
-1.215064303296797,-1.184118457939061,4.165495712682607
-1.1375624988287574,-0.6180010890281576,3.4191502232211572
0.32994087734822486,0.03748363576946363,2.685747884220613
-2.0635363841662215,-4.790354084811042,9.589168001152773
-0.20473202811224195,-0.5422181841365437,4.54828738340551
-0.0034228481912511465,-0.16900592029269168,3.0358094290065507
-0.15703827450319124,-0.7747439589989011,2.0408124696395546
-1.1355517979393661,-2.171137794040182,6.859968173393164
-0.20571043069834777,-0.6319456956913143,4.624158158065746
0.4044468540883062,-2.2515005281053098,6.117316042670664
0.6901256831953437,-2.2114077102208305,5.942333356500021
-1.8359219892671457,-3.014021864729869,8.808088133708614
-1.3857033370749268,-4.353627542769917,8.58952766535709
-2.718454628527151,-2.012905104022405,7.307225739732798
0.12217123382958403,-1.370359060235688,10.814130274544695
-1.3491056664192278,-2.2104002309277386,7.720687243670037
1.086212833785524,-1.0146730409613087,6.832987961068163
-2.6691847891365064,-2.2368118733544984,7.324408396725409
-0.27527572688588053,0.7446957732368409,1.0017898872145405
-0.5262294410223637,-0.7833982925087177,1.723089477984988
-0.26433856641501285,-2.8249489721509917,8.830260193228483
-0.5662911531179265,-2.713292642854453,5.258532755127402
-1.9532711446639925,-2.724781945713871,7.562541345835318
0.9845328486929388,-4.069130029893296,8.000218671191465
-1.8553669900323806,-4.650116814801049,9.711503962867283
-1.2667954180051106,-4.945787999004658,8.973379254275645
-1.3199911651627902,-2.6906117763949537,5.080236350253786
0.3176165913774176,0.03633460087029373,1.9884858764863227
-1.2303231454426768,-4.389641068834119,9.024633274271029
-0.0741054542036804,-0.7710884487510619,10.368001230315885
-0.9713640981073398,0.635570167131987,2.4003204144871364
0.3192009859639373,-6.05126841180441,10.602537843622473
-1.5693598743724184,-2.133031660392549,6.091805908250228
-1.9604372931646084,-2.9404852645470094,7.723750317435631
-0.16973619462287884,-1.8965298786519502,6.313504192334538
0.10826263399938535,0.005134931312063169,1.960843786602926
0.8074149851643423,-4.366043626127863,8.915665565883163
-1.9784879113197487,-3.0394001470465573,7.336735363536728
0.10266942900463574,-4.854354092208919,8.802762872823328
-1.0717177681287773,-4.302322188654492,8.968668312474643
-1.3819433813293047,-3.2557246849208807,8.027035724011538
-1.648688948336599,-2.6846436212113423,7.418006850141053
-2.0055751020359596,-2.3763075992543916,7.979532651771425
-0.29588139001948016,0.6935059976659961,1.5728211545900201
0.6778290961189979,-4.907838547657575,9.070092042446962
-0.31649190859811116,0.6933962543389822,1.6143757816044755
0.197127983864623,0.7337221406533773,1.155804293847992
-2.2712568825633075,-3.5328102132901664,7.521760641815671
-1.2402219830309296,-1.072114470707684,5.180628249225912
0.12772251922534397,-3.2454274977177726,9.867414355930562
-1.4762274157409379,-2.426379593651896,7.016641522637245
-1.9882941694945935,-1.2542280724475698,6.025080357787933
-1.4244687585869253,-2.9461860098297565,8.233675936620022
-1.761701691263844,-2.7771719967074846,8.20395155838867
-1.5760130303892945,-4.970022119393926,9.202192445137365
-1.5195405711233132,-3.032103473648392,8.936540609072521
-2.277563805204613,-2.5182620498553154,6.967907506935134
1.8000966832041108,-1.4243856739661278,6.152562662716797
0.6408357630941325,-2.30779219259328,5.74155643335944
-4.171924240431275,-5.775575366949605,15.068591358857898
0.6696056367414447,-2.4108249014328993,5.971319104035007
-0.8370621350257753,-4.163476538809206,8.862476549610692
-2.4483581797923635,-1.5228234749208662,7.278620624095282
-0.3710368886281154,-0.8529563690582572,2.0958077470765675
-0.22597852503813018,-0.5087911551316748,4.51447015249477
-2.13289818323232,-5.246264131516229,11.396308633792511
-1.4418837788582444,-4.317465672963859,9.603633302900672
-1.2040273068992944,-0.7071706025433756,4.6616094902314655
-1.3431542688799782,-1.9234986974507413,5.830202395501442
-2.8629573195484146,-4.336826482129552,10.58270175689033
-0.1498441248519563,-0.7313613111140765,1.5224923065579459
1.4521314183747414,-0.23492182176135715,11.336572617560174
-1.8007889340584062,-2.839570675756424,6.479661843043169
0.9709640311690284,-0.06383085609469963,4.280836718883064
0.20250409160518576,-0.03772252976676505,0.499277936018729
-0.1302636189643543,0.06696367614936344,3.3864545293515245
-1.6628594905869434,-3.9590267034520625,7.665211081656516
-0.3976226693582206,-1.1215348164681656,2.6797317149121818
-0.37682696258058457,-0.8412152440086634,1.7621522262429539
0.6121031415750149,-0.21219117877953658,3.9382749773270325
0.725187939099443,-5.241738398148949,10.9884223231955
1.2321086000935908,-3.9389748793612225,8.402659437440695
1.1307546859300082,-1.5057351413309936,11.436185381062494
-3.1646475743283524,-5.68159082061389,11.650950396208264
-0.7179976531205146,-2.531750887831736,8.551895945498854
0.9883254585737917,-2.689846138981751,5.823018533171331
0.05110220393841291,-0.426618921684067,1.1526329455647084
-0.012374320845028744,-1.5146553804368557,4.785246492053709
-1.8313297780835889,-3.0167283681794057,8.195351606257582
0.17150286465517747,0.00018927245108380823,1.071515405890696
-0.3084153238804036,-1.4207862587496847,5.193717363345781
0.7679170529734385,-1.15786958204928,5.781047137440297
1.4446495724259538,-1.2833824448616775,8.182890998200085
0.4530257290508139,0.03384696487873287,2.4222825725180495
0.532313718757446,-0.26172028653623136,2.849281618035175
0.4670799425553023,0.028887738452561137,3.159004756903997
0.5371113900682384,-4.671013709700617,11.06350966954859
0.4040639606811239,0.7196126668852233,1.525753366555128
-0.1655831038061685,-1.3603002889150384,10.38385310861109
0.2639088774164549,0.06005371006823534,2.506141044615661
-2.8016920630471494,-2.068785687885527,7.396327055622206
-1.0501564538052348,0.18393690450498604,3.2890058948408014
0.664322221780248,0.5676121420028608,2.4953042604206925
0.02149576781304936,0.6456781148341032,2.3620458767956665
-1.5357177842846437,-4.4810595173094026,8.19415651553974
-1.0731266169767126,-0.446299808809949,3.246301254426299
0.0007920797235929283,-0.44351638367535656,0.9360876856935159
0.2120684114790471,0.7004072030145528,1.6969337882566053
-1.0856592245692542,0.08503103584223068,3.587444111883065
0.15387480663315994,0.7090255182821981,1.560364405641446
-1.296025673202003,-0.8897882350061351,3.8544252831756096
-1.3079784301231314,-2.1367442650584616,7.39425050158666
0.7054103634722825,-4.725213654597579,8.904239347117205
0.15826537456616588,-0.10284055337388269,0.535754108779996
0.5379411715416383,-4.5408971714153274,10.838263392973166
-1.14616780641084,-0.6938075706295749,3.865115233927445
-1.3185867443971762,-1.8595977152921164,5.948874784756025
-0.5102811508835834,0.7135068863888713,1.4659929315200735
-1.9310166185434565,-2.2871497093016973,6.9871181570578225
-0.0805491620161094,-0.5688995197340553,1.782057204439734
-0.2093879566534586,-0.7301862955624359,3.8664429948592964
0.13745696684569436,0.055830867221900816,2.5231355173458896
-0.9594148778011589,-2.7495046597337036,6.987038421455274
0.6084061588652264,-0.05180403231122596,2.4960213028307825
-1.1984719570085116,-3.5144504499907754,8.382041831006234
-0.5036876841862385,-0.16652657667661427,-0.12416446691370939
0.0575996220646623,0.027318013068660565,1.7761078599722546
-0.32357978157238104,-0.819302598528564,1.8124917086031007
-2.348219520586588,-2.513850357503837,8.374281307881272
-0.46876477880141926,-1.5680469451207288,3.073266506188237
0.8390003293797583,-5.311083419393991,10.960038136262572
-1.8400146328176985,-4.195125424161964,8.255640953387987
0.3505663467938801,-5.653129625910388,10.53653542980759
-0.19105334330704218,-0.34506117900740135,4.329746014701544
-1.8834282665770605,-4.76271852698021,11.295145072466
-1.0888983542609656,-0.38809997726642925,3.180649709617308
-0.25241316006135944,0.697559710073831,1.6096390235429012
-1.7223133220927114,-3.0268612119167786,8.755286529156104
-0.1503079536141406,-0.7529838677736993,1.9225225200576996
-1.8903429694741642,-3.2737661574596326,8.906641535666518
-0.11762307297858415,-0.4026640358717344,3.527216807120443
-1.6103954897197845,-4.105720233127272,8.803678875507828
-0.7340567922839752,-1.7814217910799302,3.2247526399963244
1.019080351378455,-1.2896880030138054,11.864326547258296
-0.5363194086441133,0.6361206704886342,2.409735540527232
-1.1881542752292529,-0.9126959399233132,3.937844388698711
0.10175892620834126,0.7453961346862448,1.0667144643425754
-0.45673120893498254,-0.23922453989430242,0.8995454867468352
0.5076262501871606,0.6372629928907179,2.4682952162474487
0.039231386286832204,-3.431069190149589,10.460368563716903
0.7115026887768306,-1.469075873171566,11.40257516707243
-0.668939944689132,0.6328220602045176,2.3227138585619684
0.1311414358954294,0.7448014956684356,1.0964114213707192
-1.2945617589568272,-2.279151504563114,4.306296993597533
0.7035879915521871,-4.789193914287876,8.951144392523902
-1.1346150612549857,-1.9755473970898185,5.492629040718829
1.1283299739410197,-2.8398711661151927,5.760642339482189
-2.5767541498184796,-4.067232663402707,7.736706393588909
-1.0181768594048735,0.3036288739082917,3.069761894833682
-1.8830048340555192,-3.818230271080509,8.051012425310658
0.1031450479928479,0.04409070828734021,2.288330085602477
-0.8358465137757869,-1.690527944184841,3.669220624079012
-0.21280065022647757,-0.44389637595384956,7.920961320240232
0.09846739565006657,-1.0298181657746994,2.4331313460526625
-2.3670302978607363,-3.4317947055555895,7.695673221196809
0.11663716867279658,-1.9130671142275602,5.8440437209588
-2.007693260450408,-2.9714227538211206,7.288574439961468
1.456271098259365,-1.3757042928100323,12.61602005962639
-0.6033865240290454,-3.2444405653485484,8.702269392654427
0.24960795183327578,-0.2203254787631311,3.6879112532270315
-0.36343210848578955,-0.9715222744615932,2.950794297678458
0.2613439529411145,-0.04487634564987136,1.0313024194619953
-1.2227606939724214,-1.759036351551113,5.62909340479923
-1.287137094484645,-1.3794895929989273,4.755070359357373
1.120958126346234,-1.4328528673924805,5.620674547785977
0.9731764841093106,-0.31711267785681746,4.351659299412455
-0.19628813634068507,-1.0178173752094155,4.424873585793651
-0.18116785920335346,-0.8080607178699679,4.166911688124974
-0.1571589601639145,-0.6488296418169988,3.9240137798150725
-0.3303716903019268,-0.8202026541049499,1.8216064624153088
-0.6139315393233996,0.7210334418778783,1.2709631348244477
-0.7712363393108206,-1.3843839680414707,2.855148923534184
0.13463594374701346,0.7253925065653591,1.304709403828263
-1.7812269349529852,-3.7895107930412197,8.24966262863828
0.015134925540939778,-0.29509253588126466,0.9379560475533218
-0.24146589126864265,-0.6102786753853497,1.417447670884588
1.280289839478764,-3.4889587203312162,7.379430251637342
-0.9690265479970238,-2.4818017622275774,4.56770454416463
0.2983635270980145,-4.979844942029246,8.811152598918817
-0.83057840941756,-1.221761466979463,2.8164196977687066
-0.27749778115847296,-0.6834104679296036,1.9313091070231814
-2.5670596202014946,-4.019563132269263,7.685374946195125
-2.3157475393133327,-3.3141270281089326,8.036034209761498
-2.625941906745541,-3.9861369495427343,7.638180500051872
0.03149787403143077,0.010929431556782505,2.751695286696272
-2.1911383119428396,-4.14249906204671,7.993777428874948
-1.787022589250359,-2.9190657994752423,6.058333978276362
2.711878195707695,-1.517114356327356,13.796629969806101
-0.04937760811877925,-0.44627406136897163,3.4912885426121756
-2.1658945813105577,-0.6706157189499007,8.992510208936872
1.7982895708339421,-1.4323758326266802,12.474083476909593
0.8853677651794046,-1.2467052793986193,12.431993874222277
0.30829713234331746,-2.116794930886606,6.0913497932968665
1.4639301849361994,-1.0983825883911025,6.898070586381495
-0.8302782399998421,-1.7027517865367618,3.6746812466625154
0.3577639740899411,-0.0513528341270149,0.6962008976493519
-0.33398682899308074,-0.1542525918059088,0.4902541505242067
0.0343534707368183,0.7255760388641374,1.1784860713149603
0.09231091345977491,-0.045058054251576996,0.6336680652450457
0.5442160583113076,-0.8892681931948613,11.052707157480258
-0.3278648668845213,0.7044806090235067,1.4301862042043054
0.8285560455545161,-0.10317401357460712,3.437652087621137
0.302968336178702,-0.00151881937384074,1.2797140644952794
2.037887366102249,-0.23645440818906702,8.699288742840029
1.1874310868265647,-1.0325977748356594,6.498556893786229
-1.3859452997501969,-2.096508578664236,6.487498779735427
0.2553321427715562,0.05429376698646051,2.9247608986805327
-0.21854308613099568,-0.3727512131334567,4.266527086209875
-2.729832737476422,-2.0777356905661777,7.4325582141951845
-0.2047911908977116,-0.5160533595226763,4.495652818424944
0.4911433285730577,0.6416784203316526,2.3905123840860725
0.04286601070998493,-0.041061061085864346,0.7328972648170404
-0.5561537185757358,0.6361610548245803,2.2612431879789354
-1.2787989473889259,-3.419627667152121,6.361351747539074
-0.5900929614639118,0.6489706418719847,2.1402523474442754
-2.8525766078269474,-2.183759470448678,7.5158867023730105
-1.0857653156870313,-1.3480569993587173,11.772486117980208
-0.491178977599761,0.6579115524279632,2.008168729482761
0.283890653072729,0.6839910974006715,1.7948339460855491
-0.3010357658335586,-1.163638591058886,5.4731548045523715
-0.38953085883275174,0.6873478004253796,1.697591582867444
-0.7520016930032375,-1.4290044068664158,4.821741699914343
0.48422797651339994,-1.1060204833283043,11.221592586189164
0.6991361419216313,-1.085985616838114,8.829631896322487
0.5444513187106741,0.689925796460126,1.9328784982691818
0.739621742584236,-0.8114862804408995,6.433160953990598
-0.2093324571951906,-0.7646654625145126,2.259480422522615
-0.12757109108476464,-0.5523123608009585,1.005629881351561
-1.565002166361814,-2.6081808431787965,7.811980486817577
-1.356204251557454,-3.470209286749262,8.443358979468973
-1.3041188577324776,-1.7402443498246634,5.294233188697163
-1.861964201442576,-4.810533907716358,9.080813425276569
-0.20115903488237802,-1.6540451559151816,5.2576176492063915
-1.2822847815187017,-1.7516958732487697,5.4545506102595125
-1.230919330723407,-1.8349130482513742,5.820142426399876
-2.5543834083719057,-2.2939266615741465,7.168081934204981
0.009767590763896395,-1.5019185436021965,1.0985446546474413
-1.268497358625574,-1.8266731302273627,5.823733418726137
-1.4716034938667661,-2.191577607595219,7.081019975409859
-2.062251461095201,-2.7771793308295103,7.657193082081241
-2.1654214548486386,-2.832528829616777,7.849935093399185
-1.3185756207674735,-3.310633736991617,7.638335024382619
-2.4962474877008676,-2.62330586580071,8.648548618666082
-1.5874434130098667,-2.9118042181811723,8.57575791340749
-1.253495170628586,-1.5094920437947414,5.067139040108964
-1.760362528654613,-2.99934997495381,8.766260006730118
-2.6311804063999444,-2.0176115448783047,7.007377728033807
0.09820379412773436,0.7391614059879267,1.0838417680413397
1.1938575801827553,-1.4773895608444487,5.540688028645808
1.4828126323392852,-1.2204516405992805,6.191031518224028
-0.1321313535536461,-0.004627013726391726,-0.09843425349867811
0.41688630772787916,-0.16685945115445475,1.122706345593459
-1.1805514609937402,-3.0749499708322108,6.537895959441751
0.06309645706297032,-0.3616169590703354,3.1037308399568553
-0.48973675652747095,-1.4420040835938677,3.195013834824817
0.3796088561399632,-0.4931936594668967,4.323713473621424
0.006833916696850768,-0.6772806367320495,1.3346685767688018
-1.9599686413393367,-2.9191319677403396,6.647527790021811
1.5752647090272203,-4.088319736245295,7.424011733736047
0.8000130565473613,-4.88002346540205,8.951081699693244
-1.2432092898865208,-1.1039457018709595,4.348788085214356
-1.1425631651909762,-1.6761404235995376,4.174344444464058
-0.3591305071719839,-1.6704803524663083,6.186559717876505
-1.0569096054235858,-0.28105749656768514,3.228016525673755
0.5827051351831768,0.0032819299452535085,2.8549322444579865
-0.2752708459991926,-1.3059685465444386,2.5867666285331268
0.18265128043339554,-0.10341710709329527,0.8471972799985704
1.3446783190627043,-1.494780802020873,11.348788673727267
-0.04828965709729545,0.7238596646901162,1.2666094728943353
-2.7397903502868504,-4.024676534193931,8.088920917776491
-1.2579939381414467,-1.6448795283631048,5.295000100802613
0.9753205177561431,-2.5557898533897556,5.4981221384059635
-0.7128222076457686,-4.122265022549115,8.682426868634478
-0.9018391098920658,-4.134830855684301,7.325586149457501
-2.331670547168674,-5.335184765450892,12.543154543730449
-0.0397597301771,-0.528149861240491,3.6384518561224843
-2.165720232176267,-5.200212817923672,11.654768372284138
-0.12092455568986296,0.631991587541384,2.4401676653955633
-0.3702975877667198,-0.8605162748460629,2.096961848909097
0.19313943988367943,-0.5448750864478351,5.5982016508499575
-0.06929186117026293,0.00583268701090513,2.9214295957162264
0.9420067332918873,-2.4141802659321607,5.109036383674717
-2.101875234724338,-3.1945524740014117,7.556827828211839
0.04031943794977049,-0.46522692199362503,1.2287717544278947
1.800903018961161,-0.3073364313887233,12.67469508788821
0.02735836211424564,0.667039416768298,2.000705189886905
0.1844527697174452,0.7484867294931565,1.0822165062201383
-1.1428675895243263,-0.3112401172819872,4.051493518207066
-0.1838353067629904,-0.20059648184425669,3.861923172561076
0.033829936072257934,0.7276294315356888,1.2007026689260194
0.39298972084352196,-0.047212594110101376,0.658760569858436
0.2892017127321441,-0.08661762737123316,2.6489199694079293
0.03199478012141285,0.7347540646769034,1.1250185450721941
0.7898191012669621,-0.08761318619482296,2.783603488451353
0.30326009839366935,-0.037497480910721866,1.495879291047359
0.22922341994855402,-0.030338007599491356,2.080679227678712
-0.012105241504100554,0.7339295613812581,1.1717224788929428
-1.081930604824846,-0.3139526461394607,3.332949900075919
1.6339155134621501,-4.092659376461595,8.368503871331486
0.5529774064201678,-6.104271289082402,11.070073269737462
0.3507690293229595,-0.003978229420922665,2.002797717474404
-1.9559615814737137,-3.15435839339004,7.229286461527713
0.23048079371136587,0.0038352772996854884,2.5789373195488854
0.4852465917230526,0.03386448980404755,2.426010342055655
-0.5080955838487471,-0.16084105883944333,0.9770377852807054
0.32556661860865493,0.003621801186917084,1.143617237474901
0.29710369749459725,0.01811936357700974,1.7093512991267945
0.3245106794780467,0.07053691216242315,2.673418749043024
-1.113461957976566,-2.91700597168751,5.766998826739641
0.5748668041762078,-0.09149521491770052,11.265451520525962
-1.1039817574517834,0.07449966674896895,3.6103033573648515
-0.2067762731434009,-1.1947893765858544,4.742577694554756
-1.196354765733854,-2.1114532024964268,7.417407626286007
-1.069521371229036,0.17956432893179597,3.381917528765048
-1.2433342749395364,-1.2220350202344226,4.736350767328571
-0.10156216640406043,0.20657663787023112,3.3765707440302997
1.2059337925212352,-2.7267805414105895,5.349343076839971
0.3057034882218505,0.6730916124542821,2.3489832729582076
-1.068921343519392,0.21832655060742817,3.2854773228766736
0.39858201081622646,0.16696732535315867,2.3385119961224627
-0.9934666026357595,0.635038498043309,2.344687358925216
0.6151379269616765,0.057072348539924565,3.007100145099055
0.7971208351540728,0.6022446363396703,2.8012044223691124
0.17708267984632312,0.7397566019685727,1.0998452748868295
0.5587989786257062,0.6431800981361951,2.5905878460835994
-0.5050641733476063,-0.17758751481838628,0.9593061288124018
0.44669490962365,0.6248108188031024,2.3783268975463674
-1.3370647164923333,-1.8749659516020614,5.479225744192357
-0.09659834578019774,-0.3323912785405973,1.3086400060189438
0.5247254565192828,0.6395250146772146,2.391046900397392
-0.7554245116894566,-0.8173350784601022,1.6343127007090714
0.02332473806899103,-4.8901230686227235,8.678293466439182
0.5383187156309612,0.6498547434014834,2.4120136016398543
-0.021909751002811045,0.6387861221179899,2.31614196425888
0.18322535231606832,-0.10552635433805792,2.2582299999728876
0.41826024442949183,0.601538805247565,2.2730710858926004
-0.09401095657867589,0.6371841559252633,2.2834760156679867
0.09720907041368795,0.6387244206797107,2.2770696672991946
1.933449192582134,-3.748289437534734,7.11645724415114
0.36248781798911667,0.6476517299863378,2.309892603089929
0.3411919407060835,0.6382814799149947,2.2754618576505785
1.1323930954641497,-3.492663101373522,7.488278929510234
-1.0376246924348762,0.5818020241443667,2.85717896110345
-0.4801477192716462,0.6621200985936533,1.995794787862047
0.2777012908296735,0.6904324945512821,1.8509484833196177
-1.0562802564129632,-0.26361779584406125,3.197811496918736
-0.009580089551856156,0.5438035839542652,2.465574938188272
0.848890632536554,-4.14207678333821,8.07787564800002
0.49888000796870796,0.6390882286706882,2.433918201512028
-0.00190814355288133,0.12951232402867027,2.317992788961731
-0.8195082753704875,0.7644932059341082,1.0711533494139394
0.3269950579063532,-1.3959281442889206,3.7444115603780177
1.6666639720677106,-0.2557584382065849,12.638804233451655
-0.1681272096412506,-0.6825121098221043,2.143058195293685
0.0644783308666427,0.7334706382343713,1.1938828549181322
-2.341345699566555,-3.4751788160266677,7.861363431299179
0.26520181394297254,-0.014216959674434515,0.8831536535298147
0.3777318361629354,-3.660203444485259,9.285087006614612
0.12843365142084734,0.721546349243338,1.304944812899324
-1.6804059320657274,-2.14559308306197,4.6489763343075765
-1.8658004798872683,-0.9363763708873148,5.934186011682995
1.2712667983808357,-1.0745562584456352,6.442978609431386
-1.142550429687376,-0.6654888764302838,3.6443486670716734
0.6304097464956359,-1.4424744737365893,11.136872414828193
-1.089999601017137,-1.8339217986659575,4.23191459055658
-2.091541583145933,-2.884511561546702,7.466914621966179
-1.1787232943545742,-0.2652009387059102,2.932507883258497
-2.1018735597371188,-3.466570109778045,8.216737550155017
-0.10848199403802428,-0.5612051386905436,1.6439031144562832
2.919220382322473,-1.7194740971087716,14.023402071803664
-0.6296024000459709,-1.3675584551556177,2.5565548643938594
1.289218237048701,-2.775093420370404,5.309356326879243
-1.108885881748799,-3.006868456288181,6.280060985189077
-0.0029581330013740987,-0.8629879551878444,2.2042184409755996
0.3199938525949949,-0.028874690459982696,1.0792706608852474
-0.8504498845050775,-4.8295151515934265,8.935858845948381
-2.671455617434302,-6.496353165704775,13.714654282189048
0.9303385576634803,0.03197725222138451,3.753478250113339
-1.2074762969600972,-0.8225180553058291,4.839752899823129
-1.822219152547796,-4.479666413102437,9.104677967439333
-0.13267580986687982,-0.5986750456650649,8.703734184795527
-0.613475016454949,0.6960147262894203,1.589648518425374
-0.20904983364061358,-0.22748665921824554,3.563396232732327
-1.3468731383571344,-3.7416508233570065,10.057538424014444
-0.8018349876538172,-3.0295246448244626,9.920821857724837
-0.960212728210832,-2.4996186184142286,4.9944215193042
-2.4319290286770645,-2.892994219825153,7.853381228789727
-2.3870658298771907,-4.000351585738321,9.124988097412041
0.810638744363678,-0.5043001160254699,3.077191665169892
-1.164677371901236,-1.3020222514158608,4.400229238544949
-0.1009798337487087,-0.33720806412454757,3.3892990889946653
0.6201143859974177,-0.016938974925965414,2.0214960347114523
-0.38892270764746795,-5.342515774574393,9.294629621739467
0.32717118717389404,-4.27320735619146,8.02453584588986
0.6252602066448546,-2.3003518428072494,5.774632119642394
-1.0771503668984554,-4.1601880279486165,8.347126532570032
-2.2115268611501753,-3.3373350133711837,7.632046420425625
-2.359291163060331,-3.8014806120690396,8.825220362293324
-0.13989434803570064,0.6889585918054414,2.522193483974229
0.0672689832542332,0.05875833567590554,10.217080644165998
1.727806698432758,-1.3779251173330533,6.612614830452053
0.07849956718491186,-0.12379117265448392,0.7199484530258554
0.1926570433127804,-0.008005159799997929,2.3423316902389293
-0.1782156713245071,-0.33772016022860685,0.8438095716425823
0.8626546254384273,-0.1769111547460446,3.5814949538128893
0.09356509914943992,0.7291270883598246,1.2468453193667945
-1.8879718602084388,-3.0409803098322032,9.02064087527468
1.62475505665791,-1.4905322334975406,13.781731742345789
-1.6754103609955957,-3.60357099137286,8.31719702600108
-0.12387264894160324,-0.009402422097952575,0.08180387041456093
0.9800686454293215,-1.5282209747755575,11.920766502734313
-2.176484103491731,-5.809358968081835,11.566142803197396
-1.6901691262368248,-2.7985820663996455,7.9842295292099505
0.07125931613421993,-0.6101295936476325,1.1759016038385885
1.1715588979709572,-2.7834430970502577,5.100914838636391
-1.5538275101987267,-3.9448204517881473,7.593960614270788
-1.2386902226422716,-4.905008776794626,9.379022244978895
0.0238927050545359,-0.32859464155542784,0.9130388612295255
0.13731473651972706,-3.5123922364131483,10.45722656877097
0.854895428092297,-0.822455507428093,3.513521153579211
0.7866516626891701,-1.1472719142181524,5.51695164088902
1.5827271332202029,-0.24164635004647067,11.813923894940121
0.21889410073805426,0.057083391045171704,2.468523803600885
-1.856803766841303,-2.961880110710671,7.949456881197299
-1.2449806661707745,-1.3647746507217273,4.722923911048798
0.27294557243587386,-0.0975627343236495,1.6425112476465327
0.09010585675255525,0.029526963772758884,1.0950664675042017
-1.3182572452852488,-1.2345349149689882,4.689843385435395
-0.7616173516526086,-0.5069044253944351,2.013517394251688
-1.3649785120382418,0.29045706805346694,-0.0152699378375325
0.017077227559926703,-0.2944902306889518,0.9230401592723303
-1.4924488975648167,-5.199194496105455,8.794637432581236
-1.0522816008220197,0.38277075335635313,3.107144645776176
-1.1334781508911547,-0.7178577518617413,3.870475547116663
-1.1442684589652024,-0.4983107801182879,4.340273588665764
0.4696026553313801,-1.0150431885370408,6.093399225675564
-2.2120707582562917,-3.3573637130360203,7.581102604937467
-1.833962822322336,-3.251998109661347,8.044038006310194
0.3363672404113155,-2.1282798636522893,6.0492824142785455
-0.04254757708604007,0.03658997059582158,2.7573884915929074
-0.698035596890029,-1.327558712466575,3.1610046191480037
-2.2343829250532132,-3.153216794235967,7.639343690834414
-0.30948627257946726,-4.191310385961591,10.2055719191764
0.07477620182693095,-0.24189767499165268,0.5449196843713454
-0.5060944819584481,0.6318615895032285,1.0500912424075945
-0.10984885935799327,-2.2786734662605923,4.790908951910473
0.6934955135039375,-5.690208939495042,11.038993603068532
-1.8350978733500463,-5.386701668046296,9.926487100282
-0.7701915529727882,-5.064582671168176,9.311230923868628
-0.4329955150820078,-5.076072867782389,8.758300934701671
-1.1041578396469431,-0.4449387242849285,3.5066778206142186
0.6477502902108024,-1.1375557174485813,11.73964669241025
-1.658891257538997,-3.6186533581666827,10.037491463971332
-1.3943791439200448,-5.019113934600072,8.59793120115731
-1.6152290326476457,-1.9690498394498328,5.558060657686657
-2.744322962376218,-4.63142117443513,7.823083204421081
1.5991772212871287,-4.275140987689642,7.891537040061332
-1.7530090574761044,-4.117668687158683,7.786110951490922
-0.10050631280492042,-0.35827563970223547,0.7135849607949882
-2.07346373560898,-4.315079304362712,7.979934596301816
1.0803660460026885,-2.7757671224526344,5.784632008062196
-1.0923993172307676,-4.021124930363825,8.322873470929846
-0.5526148454740838,-0.7418514336827186,1.6627308048841216
-0.2528255147456668,-1.2863585515886415,2.725629026565971
-2.353447479238522,-3.5252291971319183,7.46527644636891
-2.391538155046117,-3.020234833644518,7.5666083100752
-2.770190630868411,-4.432585402210876,9.393893338683835
-1.1070772457009583,-2.9978827591753925,6.409760910227792
-2.032699889582866,-3.166660892402764,7.400509998228473
-3.766094538886478,-3.520311792907121,13.540149299204181
0.08810433180110167,-0.29656580462809945,0.7786070957777538
-2.3793251819008865,-2.9754268188203192,8.30347897848981
0.9465542216963537,-4.993233374848711,10.581804813771562
-1.5952136277833096,-2.975305984478561,8.489095432165202
-3.8371143813856,-7.253053391414821,19.11206204479228
-1.2840392532799798,-1.7179135183303051,5.394422447973978
-1.2213177690652441,-1.1118430474743666,4.305675620604654
-1.4379427598980015,-1.5861709867555132,5.070801022951202
1.41506199764421,-1.2000940725229816,6.74492917762542
-0.3065763470922273,-1.3623059918490654,10.368735181323776
0.09391298996719616,-0.5558064186659327,4.30635396751222
-1.1320194793098308,-0.2096464621229854,4.028551534462262
0.10050088455658507,0.5143847899980163,1.8788591293611057
-0.24253081021779013,-2.492493048541242,7.399393262396961
-1.3393098745220104,-3.2579799925593207,10.116434481029383
-2.1208240417324387,-3.7082186044712646,7.397677312942894
-0.7804667031615601,-4.367287663744079,8.333458177376682
-0.11504904905696658,-0.004235800021706853,3.6167525336225848
-0.44688343825454246,-1.0266597784152232,3.0551162427607075
-0.7618550361739643,-3.0045158799799077,9.830613575145211
-0.24013922008402894,-0.8593637625416796,4.961538818006423
-0.24117504835295636,-1.2537876601937816,2.693526585900877
-0.7339399868295088,-4.215906828134208,8.712496445651523
0.9276642811679922,-2.439850662895753,5.269808714954251
-0.3060071886126528,0.6530349923107199,2.1605932986128797
-0.4443166525467231,-0.715697910977398,3.1071210302142473
-0.3550679689962453,-1.0857414492236346,3.369896523595588
-0.9861183955602454,-1.6897465671922443,3.7396153198359174
1.126769378433934,-1.4013694842102715,5.462841734434167
-1.7660936414755157,-3.2081499124636124,6.483578401780011
1.4177575940746143,-0.21580508393691214,7.1503961887622
0.6841068021569112,-0.15271044278869805,2.2796719198921656
-0.29387496295031684,-0.7754216726500459,1.5917230787229415
-0.06268171244952925,0.6104575770814163,2.9615719891952215
-0.1663918180120754,-0.23585466619946271,4.149330135758594
-1.8085473752542804,-3.0572888177059863,7.7127428424505435
0.3025294662010511,-0.034248571266168835,1.3611724459023564
2.4169895617280495,-1.7978116588730886,8.897795268087213
0.2995194577107382,0.0034188473651222176,1.9404259723257125
-0.989455771099984,0.2686818498492055,3.0233597375927412
2.045607688005293,0.20261702093719341,12.4944864432607
-0.21434879506750487,-0.5211859392199407,1.4889828659692739
-1.5619943441796396,-2.978254097531135,8.553499191007116
-0.7861009567101453,-1.9092667551484404,5.974773886103792
-1.286839835138918,-1.754837749100017,5.449087853315357
-2.2008974372302132,-2.3547932501517077,8.104936230691878
-2.8024054869268604,-2.0937749975160864,7.360335552113215
0.6123363460710088,0.6019991706783866,2.5418480930227876
0.4200008646096458,0.6237398353644306,2.3138996370230815
-0.5222067619126338,0.972854745627051,2.0501747046884176
-0.6289124687831205,-1.1542578252285074,2.0182531762734475
0.3808473780311657,0.7090305076457268,1.5125594159479623
-1.7236520031703866,-4.217349944000479,10.043934380367725
-2.391957045957765,-3.831766462225328,6.471436221018593
-0.20546646745731895,-0.446396180370337,4.331989594840617
-0.17023435018108624,-0.578277905093482,1.8831185148363763
2.0929367717183567,-3.743520117014965,7.323046588771305
-0.7053382833646765,-2.7086098979706703,9.051184691947196
-0.006597177314552031,-0.2968042735426534,0.5464539256501513
3.4330890027548864,0.02834428296233387,12.976596738038813
0.17108678604444885,-0.8875357611231849,6.084834916750139
0.47321972317525557,-2.176670951237055,5.709062719591208
-0.09817047381663127,-0.21787314391155177,3.2528583527559367
-1.0539201011955273,-2.8868614124282397,5.660340886745411
0.10266667382360517,-4.707352830786438,8.889250124447184
-0.810864606050155,-2.1343797485737777,4.265821780165193
1.0232951517024405,-2.557024681416469,4.13256665406101
0.29313520465029713,-3.9117898180946593,7.940618331888845
-1.3924390095830357,-4.23294830103246,8.31057075818406
0.6775144746079828,-0.17116473500938828,5.848739444754496
-0.8584103187027952,-1.6185113973774985,3.48451604137089
-1.1721275265180209,-1.0576763587936582,5.667127499859727
-1.0866832223590357,0.2835094039027112,3.3173975873321213
0.8495948985312088,-0.5885982235128769,3.4809485845923627
-0.08344366067303757,0.7196011775133986,1.3234008882619124
1.165769656762018,-0.7100560958868439,4.337961602728862
-0.06491800215616461,-2.1066029379129256,6.626949086724015
0.2263867813987469,-0.09006694012614012,0.6149086394946159
1.349625453475846,-0.863281910023012,6.320157215617174
3.368350197806751,0.05578254593925114,14.06626757631467
0.20582679305704726,-0.11450878025281036,0.879417795120655
0.32276053943475097,-1.4031094768637413,11.06199283385475
0.8624715426223547,-0.7556799874117734,7.336183589872117
-0.19020422655215025,-0.8595989771944095,10.548914908952726
1.7926765074215338,-0.23835396177406132,12.341543091476584
-3.241226350710904,-5.063540637604991,11.685276052962296
-1.1475884765190891,-0.3282266969705086,4.219456309624587
-0.2517968353653113,-0.5840422085055329,1.3663845944651314
-1.2112908957993573,-0.8611317746965799,3.436232228487183
0.05048796029665742,-0.2824701690364835,0.6886753920147727
-0.24498363027904393,-0.5768677721402629,1.3575175580105996
-0.5464070114599892,0.7202432734414704,1.3417361430446204
0.37301489037173435,-0.01856178516744399,1.2199985112216098
-0.06830203566828413,-0.24041603330466396,1.7185441463967235
-1.754866835652084,-2.7470993163548445,6.7418931776715025
0.3591085577866781,-0.014067828941445811,1.875796277523442
-1.1828853856048847,-1.9678507579003848,4.315875930433674
-1.0936521678272955,-0.015007791830571823,3.6229054552387083
0.3508663071469755,0.031943558633827376,1.8760479955843024
1.3216648528660255,0.015299081160723487,6.891809534417371
-0.15086785184940252,-0.13314082525620538,3.971805318730347
-0.017771701773266382,0.15650845328577778,2.4531636056650354
1.036407267778457,-1.3564453081066377,11.808810381413759
-1.179952888270323,0.34055770341035674,3.5588393933239724
-0.9378832531624675,-1.7067530277963712,5.198477853821188
1.1172263707370307,-1.2017561366980725,6.174438595116635
-2.5061155990605837,-3.7511230272718943,7.3927509689817335
0.9607338579063535,-2.5618041782221055,5.528145276977425
-0.13515579539468048,-0.4836746211535524,1.1152816423459078
-1.369781219906167,-1.9867604417619853,5.9391471348334495
1.590899633013623,-1.5681019601839332,12.580677631092653
0.5170338272087553,0.6372930799093564,2.392773148619113
0.4009270912073194,0.6457507584639687,2.34535912786916
-0.17488866168989212,-3.6482437932864413,10.928122642504146
0.6574463495337088,-6.253343117495005,11.207413150379633
-1.8960582793331209,-3.0728570931979315,6.888844370117616
-1.6788783636967155,-4.009886211865978,8.85608377641215
1.3702955123935587,-1.4836145406681758,4.867780849434823
-2.157647964099125,-3.3437847823966487,8.023103939282166
0.10301957941699191,0.737161231811508,1.1235912993656003
-2.187542367435913,-3.395693712832151,7.504223773834409
-2.2435437037495194,-6.050954347989169,12.170955301149117
-1.1539884103901628,-3.956212511014804,9.190613595053172
0.3943050688796211,-0.059481404283514644,1.0468465307490136
0.3881196739191637,-0.3098612037341802,2.265765261366244
0.05817099425845576,-1.9204409226895314,6.008131381364609
-2.3339663328102165,-2.783413954321169,7.722446100368597
-1.348734805305826,-0.3385422919119735,3.4580678006475307
-0.05751770223147183,-0.39185061302375235,0.8361399198831663
-0.12600531878776333,-0.4594156393314116,1.0898913054342219
-0.287079530899529,-0.30517337870273276,0.6135014137220344
-3.1528956068184772,-6.273166284395873,17.433508795758062
-1.8441743079905273,-3.1848449187942087,8.050791603617792
0.2347216645975248,-5.671174091986125,10.42327521667507
0.39320353836885735,-0.09355546153594717,1.2808257385543123
0.3600131673457979,-0.02452040413503406,1.1288118314348587
-0.32803500414504905,0.6844407938433219,1.4572583324284265
-0.5592359918501372,-1.1225353887999734,3.1310746727729546
-0.4693382323718506,0.6487048000489052,2.0476563128198064
-0.2703752337122728,-1.7196578222365528,3.376920836939307
-5.151312946767471,-10.035599339435205,18.817681978258694
-0.4167301276490898,-1.3694992626634475,2.720314616698281
1.514588616059231,-1.091875529835853,6.594136804030524
0.34177774025332547,-0.02859302180860295,0.9240498530104269
0.3883232089959092,0.35387769316168527,2.197828444195349
0.7736928101585613,-3.7394380986440554,7.960086641879784
-0.7956539225699268,-1.600575909034134,6.318243536582747
0.22505514374550517,-5.912699193169927,10.202824024283544
-0.7921799873438599,0.651845806369208,2.323914904687352
4.668795860726679,-0.2349144917553332,9.94533905992593
0.2119359392787178,-0.035638180073906595,1.4231325468770797
0.05466503905886696,0.7289312541783133,1.2355656415315763
-1.530848394663379,-3.4607263675574775,7.670086407577953
-0.4534561860051006,-0.9798865079950798,2.1398397990754066
1.3484150992582333,-2.7798255308487367,5.1225635638796065
0.018732172435524944,0.7304108767197299,1.1678839766676914
-1.2791985395596388,0.9701595129936909,3.5673954802696413
-2.865284499181433,-2.2716608964132026,9.580413950979432
0.29865615504889076,0.03555584390338653,3.58684161429928
-1.1907441981174522,-1.8566396931654938,4.316120136741805
-1.7522400953415107,-4.205618952823556,8.034090204728068
-2.7296143047142993,-3.7546194833246687,8.01355080947555
-0.588013000565624,-5.073036303296058,9.080596248108638
0.8235153087976653,-1.2273472778871837,5.755205418025052
-2.1112252234107487,-3.345966945405273,7.731702600749715
-3.905931102272847,-12.030004494065663,21.72615016022451
0.03371249308322633,0.6330977568529668,2.340828713255439
2.385472941309845,-6.462238549031527,12.075889005363582
-1.6421750687375798,-3.707385621753908,8.56763141308189
0.26006412024675085,0.027190323693702636,1.2124070832338267
0.10986104003605945,0.7419946806557615,1.0986970781559962
-1.3693442365376187,-3.9753937767267398,7.801711801957708
-2.0848366489567396,-3.320115627208189,8.028728403048015
-0.13936601908452362,0.0700989884286786,3.684241236606766
-2.2516818663917184,-3.2645711746897708,8.032664865366838
-1.5431364472439422,-3.124464032865212,8.178180572777526
-2.043670380391107,-5.250132189257809,12.176789756885704
0.029163354555901144,0.7245235576888912,1.1800658010151002
0.21479427455107322,-3.4775298171928086,10.367522785177032
0.17246176725218346,1.145385584688628,2.3454258892249986
-0.3006527281401932,-1.1203681033935557,5.57124720018017
-0.9537820484717486,0.6374175221916236,2.3030664717639433
-0.9940868570670038,0.5455156469407493,2.3667177266172432
-1.1189334710498404,0.7774563805369312,0.4905680871178341
0.8771791187943278,-0.2112362360815576,12.078043547481448
-0.5692631465252349,-1.0946012718736393,2.2045600102277554
-1.1461416712496026,-0.24921744148009328,3.38298369850241
1.6832779396717767,-1.3635492117826273,6.031199585557692
1.8134855109048402,-0.11001130459480933,12.460928302377825
-1.8144665458692593,-2.7201983105024,7.903223375530688
-2.673829960153396,-2.450082582275293,7.630759511732876
-0.9450410247433731,-1.6693742903019788,3.7881762528454432
-1.558442631540579,-2.991579490772238,8.789553297281435
0.15823618402751385,0.7219368466696092,1.309307150666736
-1.657710992083768,-2.739498548958357,7.9635410659306745
-0.67376915401357,-0.7622136859336569,1.3655237343634172
-2.078900354798708,-3.193871475548928,7.998716253915
-0.5903737260532689,-0.0004274016616957978,2.439805754321922
-0.13156203114805545,-0.0082967730357969,-0.08997721127284476
-0.14981905645596352,-4.066604100976953,10.01579653999154
-1.1386885141432759,-0.08120615239174737,3.1669028985011902
-0.6540443092947188,-1.3966140054803526,3.2493683160809623
-0.9904449045108988,-3.906982529352683,7.973776480619596
0.8490275772310079,-0.9582960949634852,10.83208008319461
-1.1671737835123444,-4.390361913631708,9.62806812541385
0.8954453422145544,-4.005634038457552,7.945090136897714
-1.187941065851943,-0.3226286660941086,2.943836565831542
-1.6429059665191466,-4.421779202030808,9.528810714884614
-1.15914236325237,-4.869886173379384,8.566880467519118
-0.7670571777060228,-1.5863266837754002,2.888652656580868
-1.8580501931121283,-3.3336474922943804,7.798280731047939
-2.288280756057923,-3.2763893543578986,8.151492843034493
-0.22855337152575902,-0.5369047685325921,1.065853016820482
0.45609392568528084,-4.6730628314705225,8.747279567327476
-1.0446257801712373,-4.069172924240293,7.40844978419587
-1.6827783903717515,-3.849234362672133,7.978055827299016
-1.7395525544441517,-2.947791593900478,8.53142594301629
-1.0705382330358135,0.8562957243956251,-0.3687481689443412
-0.2999414944577588,-0.8568393147190345,1.6293326444948626
-1.8827063012224767,-4.254814589673404,9.23841809235395
1.7040228477831354,-0.25403438744963985,12.636459492320844
-0.48157430605613954,-5.032768458521943,8.668490154043054
0.9014499355983336,-2.417117726883981,5.3212677628995735
-0.6517160310899448,-1.3571316193469156,3.0152423762332363
-0.7023990472847305,-1.3481471633006092,2.9255797759457693
0.03238550079034195,-3.9795889655442145,9.690470962894395
0.6907489799679559,-0.4943240356592633,7.49527869013773
0.7755549383585872,-3.7692292996846435,7.731178855204555
0.5702711756094235,-0.9805582929988449,10.884070846028894
-0.943916151457799,-3.775799156740937,8.497097336093528
0.49419529622670466,-0.1321860456346122,1.9483798979817442
-0.7993942426689691,0.9682929083068155,2.197799976632492
0.4736477949151947,-0.08258632750252957,2.140309411246687
-0.3063025638556333,-1.292719682450771,3.145499100529275
0.1833489738457676,0.5331322992830585,1.8940934631404334
0.022499696969340042,0.7348515087524542,1.171214923255662
0.04865821533084212,-0.040526619438703525,0.6684406448135656
0.08587308082220482,-3.2267079197764397,10.064437711489136
-0.6610949319881849,0.7029854033598931,1.5302891452739715
-1.1444651209794672,-3.216506892677066,9.175865879604803
-0.608314301761698,0.7126896079037415,1.5045706035949167
1.01960473554779,-3.4376109689063563,6.021026929502004
0.06950444775845893,0.7329625608557263,1.1696047384254549
-0.3580149366456478,-0.20908628071458296,0.547268673293462
-0.9048766831948127,-1.1852449467254198,4.976395175264543
-1.262936505448906,-1.2029571078089445,5.465684301266783
0.24971533903805457,-0.09234743510802536,1.7172355599555806
-2.4620607638472194,-1.7214305728231085,7.775677343547037
-0.4133174226431217,-0.5265260557958109,0.7590338228864902
-0.6835405927731497,-1.3579657130002412,2.899057633184104
0.5807337666048472,-4.678406856614235,8.773716749694302
-1.2942347088622483,-4.370013521903885,9.598367999351801
-1.7226742918527826,-3.881683455313374,8.216714735676355
-1.769489102909587,-5.047559139675206,9.30746511793513
0.849499922508194,-4.995266666440076,9.133549609603778
0.33631655496596996,-0.10280791469902748,1.4669587958523385
-1.9566474359729829,-3.357152902056753,7.2847755247921535
-2.190332129555633,-3.016439271926146,7.893273623253868
-0.8634838850232589,-1.2261271599819392,3.298970683169006
0.08978213584614236,-0.49975209839035933,1.74442190185133
-2.0553370224118606,-3.0490873231980835,8.009779246371899
-1.2717948791784721,-1.7336140770652029,5.416379814782183
1.5155235938402465,-1.2545318970951613,6.594690809597713
-1.222417652772407,-0.8421824533664142,3.9355145006429555
-0.7355334861785527,-0.3483336108022986,1.4781736275678363
0.6203696654568367,-1.0808571440091854,5.837354391432828
-2.333194981317841,-1.9745022353069939,7.765486798442494
0.6564747992965169,-1.5048273884741221,11.229687742934109
1.2462753207055948,-1.6524288255653905,1.9900667793927962
-0.029002370247138896,-0.035333518299305006,0.22560854649242607
-2.0354753068128733,-3.186713489110682,7.070135816778929
0.7791368866385237,-2.4055505985382775,5.580217605711989
1.0288421464210389,-0.3827142248033281,4.412004077976528
0.038740966106008565,0.7387245010434567,1.1987266154801006
0.09005635587595773,0.01157517467873329,1.0866480556946037
0.004912860976999589,0.735186610917922,1.1905737760426136
0.019194613380952852,0.7333733959101151,1.1583044805003506
-0.06645650483473009,0.7402819826290518,1.0930910339551934
0.09386141770157688,0.7414512734959168,1.086635377364483
-1.4290474663994206,-3.3947458129919044,8.562364504110425
-0.13663175126006807,-0.003133328747956376,3.6984234677282646
-0.27312465407051256,-1.3271608297170874,2.2951858305457513
-1.5260328126251865,-4.724989984449024,8.99016643258907
0.5389429800986352,-4.709836353635066,8.82543157503682
-0.23539111204448177,-0.5830850110911722,1.0939073269874782
-1.8645902639950038,-5.384988311860447,10.760886636591522
0.21097004314511592,-0.3597969895104989,3.791245358941571
-2.1388065771097033,-4.102438869317101,8.141485468084435
-1.8670502468901207,-3.804037949559229,7.908306664357483
-0.19589376887753526,0.03008059941028923,0.08186806958851982
-2.4066071851823163,-4.296694297844575,8.991449981961965
-0.08336968696677052,0.7230577812036936,1.3232714952570637
-1.4264284681331816,-2.549595728784459,5.415529275281433
0.1019969068232775,-0.03160773841415497,3.4651069693065173
-0.4258075946503431,-1.267352406103135,2.6787217718130485
-1.7077354744735467,-3.679633937505522,8.285753304372607
0.908483896826544,-2.498024952051741,5.504626205907151
-0.7371654314113507,-1.126230871621273,2.4126515600875575
-1.696931831349032,-3.5915689440989462,8.37779952724156
-1.877364225241259,-3.5588530000413963,8.28541559782047
-1.9821733484720303,-3.7097437547178953,8.719350377958236
-1.419995923144661,-4.4539348396699365,8.753951994472056
-5.314961004461707,-8.581246612402387,20.832771836156155
0.08494928987031236,0.019505689827723154,2.388166202432329
0.4579338662353841,-2.0540556678479374,5.156610311878004
-1.1262794705529255,-1.8069096382002074,4.675520906935606
1.6294708875525938,-1.3179457127507208,6.503694213475738
-1.74535638217603,-4.298983036331038,9.858152627525671
-0.11020894542696857,0.200289954311951,3.3805290748411676
0.518359276479521,-4.74902494720385,8.794791487299829
-1.1001594003642932,-1.7814126409715554,5.127390783478377
-0.3619430008048166,-0.4817355349032972,1.5569629162690868
0.7698740947069375,-0.4759247191693661,2.9372185641020256
0.6846003275327129,-0.4304665552853162,2.5959315691470866
-2.7229697756833566,-5.861338561955391,17.604924116648434
2.6936845089402386,-1.6291146560856005,12.84773629219686
-0.009337322919940865,-0.010952959614971206,3.3657166610397735
-0.04583462664174029,-0.4600368632271962,3.2289478855595233
-1.0918789329139529,-0.036508426330041845,2.979499682471202
-0.7512257697911421,-1.1828037924416157,2.5012139085116263
-1.4020599054102312,-3.5152698117807994,7.9364337194491394
-1.5949811310393864,-3.571399049723799,9.070029012388112
1.5318152886859644,0.3963051892084409,6.757726544467382
-0.5878247574830013,0.6868277116532334,1.5914095585284307
-0.6015739469164212,0.704081809270781,1.4714317808477566
0.13700953161909243,0.710613365786537,1.3128142740628537
0.4144528800263182,-0.8533340397761111,9.74839686564747
-0.03425614688441357,0.7195270546106364,1.305408696372014
0.5176140341720615,-0.11158234158471558,2.0610404428128533
-0.34849545388200565,-0.739803039701048,2.047428029494841
0.11900122572412411,0.7350308125301341,1.1178681439167737
0.29169862613587005,-0.03214307171987553,2.3083406622384106
0.10716919595525559,0.7380945268339631,1.1200722377399395
0.1221700988178965,0.7383556365506558,1.1208006107878026
0.7326863606623518,-3.624554228028584,7.0409442664646695
